# .PCD v0.7 - Point Cloud Data file format
VERSION 0.7
FIELDS x y z
SIZE 4 4 4
TYPE F F F
COUNT 1 1 1
WIDTH 1468
HEIGHT 1
VIEWPOINT 0 0 0 1 0 0 0
POINTS 1468
DATA ascii
0.144592 -0.43297532 -1.6545266
0.15509412 -0.43317237 -1.6532177
0.16489309 -0.43174845 -1.6545538
0.17459637 -0.43211091 -1.6532546
0.18440355 -0.43281573 -1.6551571
0.19543262 -0.43342265 -1.6546843
0.20496465 -0.43299198 -1.6537002
0.21464279 -0.43385828 -1.6538723
0.22513463 -0.43353462 -1.6547077
0.23501833 -0.43254003 -1.6554998
0.24517001 -0.43281639 -1.6535363
0.25449294 -0.43319058 -1.6536999
0.26526541 -0.43351078 -1.6546155
0.27464402 -0.43278268 -1.6555601
0.2851567 -0.43277165 -1.6553167
0.295632 -0.43333665 -1.6550268
0.30642003 -0.43425092 -1.655409
0.31464005 -0.43351617 -1.6546537
0.32528314 -0.43408945 -1.6547581
0.33398446 -0.43329108 -1.654711
0.34576082 -0.43299749 -1.6556166
0.35557356 -0.43402144 -1.6549929
0.3650406 -0.43450823 -1.6536119
0.37511209 -0.43496212 -1.6538736
0.38518697 -0.43329924 -1.6553384
0.39495331 -0.4338733 -1.6561533
0.40491119 -0.43449178 -1.6555235
0.41453382 -0.43443155 -1.6540231
0.4242987 -0.43374866 -1.65526
0.43507734 -0.43408599 -1.6552067
0.44447178 -0.43462762 -1.6544352
0.45538497 -0.43433285 -1.6547356
0.46423462 -0.43452996 -1.6549307
0.47501469 -0.434944 -1.6553534
0.48509786 -0.4342207 -1.6562288
0.49481395 -0.43386659 -1.65526
0.50454336 -0.43374336 -1.6540499
0.51332337 -0.43194333 -1.6576333
0.59634995 -0.43228 -1.65115
0.6051169 -0.43327692 -1.6537229
0.61548328 -0.43382734 -1.6560066
0.62397999 -0.43464646 -1.6535499
0.63141 -0.43637332 -1.6524
0.65622002 -0.43483001 -1.651
0.66630727 -0.43518183 -1.6540729
0.67508757 -0.43402252 -1.6557624
0.68440402 -0.43525499 -1.65522
0.69477648 -0.43395069 -1.6561571
0.70449543 -0.43407732 -1.6551732
0.71498001 -0.43407097 -1.6553799
0.72544998 -0.43512562 -1.6549749
0.73574448 -0.43379089 -1.6554546
0.74473792 -0.4344036 -1.6540573
0.75455409 -0.43461999 -1.6552058
0.76447642 -0.43357998 -1.6537714
0.77492702 -0.43373901 -1.6554101
0.78517336 -0.43441665 -1.6538
-0.85205001 -0.42082 -1.6583
-0.84510088 -0.42386499 -1.6551999
-0.83498138 -0.42517075 -1.6554857
-0.82541502 -0.42651555 -1.654711
-0.81545508 -0.42685699 -1.6548401
-0.80477732 -0.42730454 -1.6551999
-0.79369295 -0.42749399 -1.6538299
-0.78434664 -0.42755333 -1.6533583
-0.77498245 -0.42665914 -1.6545249
-0.76529086 -0.42709923 -1.655077
-0.75543845 -0.42660856 -1.6541574
-0.74483317 -0.42607623 -1.6558626
-0.73491228 -0.42594159 -1.6553693
-0.72476768 -0.42649618 -1.654323
-0.71405369 -0.42730457 -1.6533545
-0.70401329 -0.42616832 -1.6549335
-0.694776 -0.427149 -1.6538899
-0.68523324 -0.42605627 -1.6544626
-0.67473829 -0.42662704 -1.6540705
-0.66416508 -0.42663693 -1.6545626
-0.65492624 -0.42623442 -1.6547375
-0.6437934 -0.42609167 -1.6551918
-0.63471264 -0.42625326 -1.6554734
-0.62434936 -0.42663607 -1.65602
-0.61568433 -0.42617792 -1.65495
-0.60476869 -0.42588878 -1.6559937
-0.5947746 -0.42653769 -1.6555691
-0.58499354 -0.42639425 -1.6553142
-0.57537997 -0.4268547 -1.6550534
-0.56587541 -0.42693636 -1.6550728
-0.55469918 -0.42669165 -1.6564165
-0.54465336 -0.42733333 -1.65655
-0.5351432 -0.42743501 -1.6555126
-0.52533585 -0.42692497 -1.6561333
-0.51416469 -0.42690402 -1.6547667
-0.50500435 -0.42655426 -1.6549429
-0.49520531 -0.42697176 -1.6545706
-0.48504907 -0.42759001 -1.6544455
-0.47611454 -0.42708823 -1.6569363
-0.46536371 -0.42681789 -1.6543157
-0.45493707 -0.42666295 -1.6550059
-0.44526729 -0.42721266 -1.6559798
-0.43548155 -0.42724615 -1.6572692
-0.42506734 -0.42657998 -1.6544335
-0.41518736 -0.42658868 -1.6554134
-0.40478176 -0.42710295 -1.654647
-0.39579281 -0.42719501 -1.65495
-0.3850238 -0.42799002 -1.6542767
-0.37475824 -0.42693302 -1.6572703
-0.36543998 -0.42684451 -1.656618
-0.35514587 -0.42749235 -1.6557822
-0.34510002 -0.42812416 -1.6567416
-0.33480546 -0.42736819 -1.6548455
-0.32472143 -0.42727858 -1.6552784
-0.31511909 -0.42772815 -1.655609
-0.30443785 -0.42769358 -1.6553785
-0.29476199 -0.42744404 -1.65504
-0.28537232 -0.42808384 -1.6562232
-0.27409285 -0.42724428 -1.65565
-0.26366895 -0.42768502 -1.6545398
-0.2554253 -0.42728534 -1.6549823
-0.2452489 -0.42780113 -1.6554666
-0.23507647 -0.42788765 -1.6560881
-0.22490545 -0.42775089 -1.6582272
-0.21499167 -0.42829332 -1.65615
-0.20437999 -0.42814556 -1.6575445
-0.19441332 -0.42792666 -1.6571083
-0.18478666 -0.42744112 -1.6571666
-0.17548181 -0.42835549 -1.6554818
-0.1649 -0.42816502 -1.6574376
-0.1538825 -0.42828879 -1.6561874
-0.14472736 -0.42737842 -1.6554315
-0.13570125 -0.42868501 -1.6550999
-0.12545727 -0.42806634 -1.6581818
-0.11539499 -0.427809 -1.65641
-0.10525999 -0.4279817 -1.6561332
-0.095678836 -0.42858586 -1.6561667
-0.085131705 -0.4282878 -1.654693
-0.075525574 -0.42882997 -1.6567429
-0.065399446 -0.42811781 -1.6566669
-0.054085504 -0.42835602 -1.6550299
-0.04499333 -0.42843667 -1.6567167
-0.036160801 -0.42931801 -1.65798
-0.022700749 -0.42761001 -1.657025
-0.014560819 -0.42759272 -1.6569817
-0.0051225238 -0.42854375 -1.6580125
0.0050728405 -0.42933598 -1.6580601
0.014154166 -0.42879501 -1.6581
0.025830144 -0.42911142 -1.6587999
0.034772333 -0.42860499 -1.6573666
0.045930855 -0.4285543 -1.6586858
0.054966427 -0.42890427 -1.6580142
0.065364003 -0.42991501 -1.6589
0.072192997 -0.42881751 -1.658175
0.084724508 -0.42890999 -1.6585001
0.093924008 -0.42961335 -1.6577333
0.10313667 -0.42892668 -1.6574334
0.11715 -0.42848 -1.6580667
0.12473334 -0.4298633 -1.6587
0.133635 -0.42992502 -1.6589
0.15452667 -0.42966667 -1.6579666
0.16518749 -0.42811251 -1.659
0.17365 -0.42893401 -1.6579201
0.18704 -0.42976499 -1.65835
0.22548398 -0.42913198 -1.6587
0.23215334 -0.42924333 -1.6586666
0.24845999 -0.42987999 -1.6587
0.25393999 -0.42956999 -1.6576
0.26008999 -0.43000001 -1.6592
0.27550501 -0.42948002 -1.6572499
0.30059001 -0.42987999 -1.6588
0.37753999 -0.42998999 -1.6592
0.38332 -0.42810002 -1.6589333
0.39517 -0.42967999 -1.658
0.45941001 -0.42642 -1.6596
0.46248999 -0.42642 -1.6595
0.51538998 -0.42800665 -1.6586
0.60569 -0.42633 -1.6592
0.61657107 -0.42397669 -1.6537
0.62156999 -0.428505 -1.65345
0.66604 -0.42989001 -1.6588
0.67285001 -0.42647001 -1.6597
0.71429998 -0.43000001 -1.6592
0.73171997 -0.42998999 -1.6592
0.75980997 -0.42991 -1.6589
0.76350999 -0.42998001 -1.6591001
-0.85247999 -0.41931999 -1.6596
0.61290395 -0.41525197 -1.65365
0.60841 -0.4031325 -1.6524
0.61137336 -0.40531668 -1.6524
0.60935998 -0.39736 -1.6522501
0.61207998 -0.397075 -1.651
0.61550397 -0.38684601 -1.6522999
0.62431496 -0.38282302 -1.65382
0.62858999 -0.37985 -1.6552
0.63541073 -0.37743926 -1.6561928
0.64391798 -0.376564 -1.65464
0.74783999 -0.36515999 -1.6519001
0.75541997 -0.36287749 -1.65335
0.76446003 -0.36116001 -1.6574
0.69505799 -0.353524 -1.65262
0.70435601 -0.35542199 -1.65168
0.75548172 -0.35701168 -1.6514834
0.76506704 -0.35545596 -1.6558399
0.77246571 -0.35425285 -1.6586713
0.69558001 -0.34863502 -1.6513
0.70389801 -0.345718 -1.65282
0.73132998 -0.34604999 -1.6511
0.74338502 -0.34184998 -1.6517999
0.75658202 -0.34507 -1.6515
0.76455069 -0.34480146 -1.6540643
0.77470076 -0.34515154 -1.6570385
0.78384 -0.34295499 -1.6592749
0.74862999 -0.33939999 -1.6523
0.75618666 -0.33879831 -1.6533667
0.76528102 -0.33671302 -1.6562399
0.77438533 -0.33475846 -1.6570922
0.78274661 -0.33626667 -1.6592001
0.83564997 0.11958 -1.6538668
0.84094 0.11935 -1.6506
0.78839999 0.12785999 -1.6524
0.79655004 0.127884 -1.6529601
0.80607593 0.12825401 -1.65334
0.81535876 0.12670499 -1.6542625
0.82520747 0.12567499 -1.65715
0.83440328 0.12522444 -1.6553779
0.84533 0.12435334 -1.6553501
0.75678498 0.13868749 -1.6546999
0.76608253 0.1364475 -1.652775
0.77187002 0.13626499 -1.655275
0.79561996 0.13257168 -1.6572834
0.80192 0.13227001 -1.6568999
0.81821501 0.131505 -1.65715
0.75874001 0.14142999 -1.6579499
0.76564336 0.14185001 -1.6567
0.82848001 0.27983999 -1.659
0.81734002 0.28321999 -1.6581
0.8244769 0.28482002 -1.6556617
0.83064997 0.28286001 -1.656
0.82618654 0.29574442 -1.6585445
0.83168 0.29466 -1.6557
0.81407291 0.30762571 -1.6570284
0.82516283 0.30421641 -1.6552858
0.83223003 0.30604002 -1.6524667
0.80848426 0.31527001 -1.6548998
0.81499112 0.31590447 -1.6564555
0.82397252 0.31487 -1.6551499
0.83219999 0.31623 -1.6525
0.80824995 0.32505 -1.6534667
0.81302911 0.32498363 -1.6549363
0.82104999 0.32455999 -1.6506
0.80937004 0.33580002 -1.6553999
0.81383103 0.33472002 -1.6549399
0.80846667 0.34581003 -1.6538668
0.81440294 0.34596699 -1.65299
0.82361001 0.34022 -1.6518
0.80883002 0.35216999 -1.6552501
0.81438798 0.35468 -1.6517799
-0.75485831 0.38782668 -1.6531667
-0.74479717 0.38874143 -1.6553
-0.71094 0.38947001 -1.6553
-0.70373839 0.38811502 -1.6531667
-0.69896001 0.38981 -1.6567
-0.67509997 0.38837713 -1.6537714
-0.66520399 0.38830402 -1.6547
-0.65868002 0.38982999 -1.6568
-0.64070499 0.38827997 -1.6539
-0.63450831 0.38821003 -1.6535832
-0.62454575 0.38795429 -1.6529857
-0.61508167 0.38838664 -1.6543499
-0.6041075 0.3876825 -1.6531501
-0.59469998 0.38813713 -1.6537714
-0.58498168 0.38832831 -1.6540833
-0.57652408 0.38807803 -1.65378
-0.56486255 0.38691249 -1.6517251
-0.55510002 0.38736001 -1.6536001
-0.534392 0.38871402 -1.6549799
-0.52552497 0.38678002 -1.6529748
-0.51639664 0.38673499 -1.6534166
-0.50405002 0.38770252 -1.6541625
-0.49468142 0.38814858 -1.6538571
-0.4858875 0.38703001 -1.654075
-0.47419399 0.38774002 -1.65378
-0.46518856 0.38672999 -1.6530286
-0.45425901 0.38694 -1.6533
-0.44498667 0.38742003 -1.6539
-0.43439376 0.38751376 -1.6542751
-0.42569751 0.38772997 -1.6533749
-0.41515249 0.3874175 -1.6538751
-0.40497336 0.38708666 -1.6524667
-0.39509887 0.38817558 -1.6546445
-0.38462141 0.38657001 -1.6534144
-0.37517834 0.38705334 -1.6535333
-0.36547002 0.38682333 -1.6513333
-0.35531801 0.38679799 -1.6541599
-0.34514999 0.38765249 -1.6549001
-0.33569747 0.38665751 -1.652475
-0.32555249 0.38747001 -1.6541001
-0.31544 0.38722572 -1.6541001
-0.30626601 0.38654 -1.65306
-0.29430994 0.38641715 -1.6527427
-0.28594202 0.38672 -1.6538401
-0.27562249 0.38630497 -1.6528124
-0.26545998 0.38692716 -1.6549143
-0.25423199 0.38846201 -1.65538
-0.24617286 0.38678572 -1.6543285
-0.12349749 0.38607749 -1.65185
-0.11488428 0.38643429 -1.6528285
-0.10519334 0.38631502 -1.65285
-0.095688879 0.38672876 -1.6546
-0.085278891 0.38621664 -1.6536446
-0.075323999 0.38639998 -1.6532
-0.066369429 0.38687569 -1.6547
-0.054346714 0.38671574 -1.6540143
-0.044643998 0.38641715 -1.6537858
-0.035264 0.38696 -1.6550857
-0.0243969 0.38642198 -1.6554899
-0.01515 0.38611877 -1.6538249
-0.006057628 0.38745999 -1.6551001
0.0057124002 0.38725141 -1.6562998
0.015880374 0.38615876 -1.6539999
0.02415725 0.38639498 -1.6549999
0.034843799 0.38733199 -1.6549801
0.0452624 0.38702801 -1.6551399
0.054200247 0.38659626 -1.6540375
0.065807857 0.38680145 -1.6544
0.074834168 0.386675 -1.6543666
0.084502004 0.38674626 -1.654675
0.095369995 0.38644874 -1.6534123
0.10482001 0.38608333 -1.6518334
0.1147875 0.38659376 -1.6540375
0.12465778 0.38575557 -1.6532888
0.13484715 0.38681144 -1.6544286
0.14526375 0.38652998 -1.6537626
0.15527 0.38689998 -1.6553167
0.165465 0.38622302 -1.6546199
0.17544857 0.38652998 -1.6542714
0.18486142 0.38651285 -1.6531428
0.19498181 0.3852936 -1.6527545
0.20454332 0.38611558 -1.6539779
0.21500286 0.38672572 -1.6551286
0.22469142 0.38694143 -1.655
0.23478141 0.38666001 -1.6548284
0.24495125 0.38653249 -1.6546625
0.25503555 0.38635889 -1.6542555
0.26517835 0.38660666 -1.6540667
0.27482143 0.3867 -1.6550143
0.28468144 0.38692573 -1.6549284
0.29399666 0.38665667 -1.6542832
0.30462888 0.3872411 -1.6555667
0.31518 0.38659999 -1.6545857
0.3253144 0.38624448 -1.6545444
0.33543 0.38646287 -1.654
0.34544286 0.38666281 -1.6538
0.35524333 0.386655 -1.6543001
0.36530447 0.38721108 -1.6537999
0.37502429 0.38695145 -1.6539857
0.38577574 0.38658571 -1.6545143
0.39452142 0.38567713 -1.6526855
0.40477124 0.38699999 -1.6557876
0.41243336 0.38613665 -1.6532999
-0.74261498 0.39201 -1.6587
-0.73833001 0.39229 -1.6599
-0.70512998 0.39138001 -1.6561
-0.69316 0.39006999 -1.6578001
-0.68563497 0.39023501 -1.6585
-0.67658001 0.39203501 -1.65885
-0.66855001 0.39021999 -1.6585
-0.63352501 0.39203 -1.65885
-0.62606001 0.39212999 -1.6592
-0.61021 0.39001 -1.6576
-0.60627997 0.39124751 -1.6591749
-0.56408501 0.39021 -1.6584001
-0.55679333 0.39030668 -1.6588334
-0.54523331 0.39052001 -1.6597334
-0.53024 0.39030001 -1.6588
-0.52343661 0.39087668 -1.6588001
-0.51880997 0.39054 -1.6598001
-0.485854 0.39055201 -1.65844
-0.46343499 0.390315 -1.6589
-0.45763999 0.39026999 -1.6587
-0.4446075 0.39012751 -1.6580249
-0.43553501 0.39157501 -1.658725
-0.42342338 0.39035332 -1.6590334
-0.41302001 0.39092335 -1.6589999
-0.40639663 0.39036334 -1.6590667
-0.39644 0.39194 -1.6584499
-0.38365331 0.39019334 -1.6583334
-0.37509 0.39004499 -1.6576999
-0.36682999 0.39026001 -1.65865
-0.34149 0.39006001 -1.6578
-0.33467752 0.39029503 -1.6587999
-0.32494 0.39031997 -1.6588999
-0.31461665 0.39011666 -1.6580334
-0.30535331 0.3901 -1.6579666
-0.27369499 0.39041501 -1.6593
-0.26267999 0.39046001 -1.6595
-0.25565499 0.39016998 -1.65825
-0.246115 0.390385 -1.6592
-0.11204 0.390275 -1.6587
-0.10795 0.39028001 -1.6587
-0.015160333 0.39041337 -1.6592668
-0.0069309501 0.39050001 -1.65965
0.01226 0.39056 -1.6599
0.036885999 0.39035001 -1.659
0.082384497 0.39046001 -1.6594501
0.096198499 0.39043 -1.6593499
0.1156125 0.39043 -1.6593499
0.12538667 0.39050332 -1.6596667
0.16166 0.39046001 -1.6595
0.18689001 0.39039001 -1.6592
0.19251999 0.39038 -1.6592
0.20818 0.39052001 -1.6596999
0.22953001 0.39058 -1.66
0.23792 0.39041001 -1.6593
0.24086 0.39050001 -1.6596
0.25808999 0.39056 -1.6599
0.26514 0.390425 -1.6593499
0.27389002 0.39054501 -1.65985
0.28674999 0.39041999 -1.6593
0.29813999 0.39024001 -1.6586
0.30247501 0.39023 -1.6585
0.34814 0.39048001 -1.6596
0.35113999 0.39052999 -1.6598001
0.38572332 0.39047667 -1.6595668
0.406115 0.390405 -1.65925
0.41370001 0.39043999 -1.6594
-0.053554665 -0.44093335 -1.6409
-0.048140999 -0.44071999 -1.6401
0.0036225 -0.44084999 -1.6406
0.036715001 -0.4402 -1.6445
0.0569795 -0.44089502 -1.6407501
0.077512003 -0.44071999 -1.6401
0.10788 -0.44080999 -1.6404999
0.11073 -0.44097 -1.6411
0.13832 -0.44073999 -1.6402
0.14119001 -0.44089001 -1.6408
0.15388501 -0.440375 -1.642
0.16411334 -0.44029668 -1.6448001
0.17749 -0.44091001 -1.6409
0.18572332 -0.44079998 -1.6424999
0.19427001 -0.44082665 -1.6405001
0.2043125 -0.44107753 -1.6414499
0.21411334 -0.44097337 -1.6410999
0.22538249 -0.44130501 -1.640725
0.23102 -0.44086999 -1.6407
0.25669333 -0.44091669 -1.6408666
0.26609403 -0.44151801 -1.6443199
0.27481666 -0.44247666 -1.6424667
0.28580141 -0.44135857 -1.6424857
0.29271501 -0.44104499 -1.6413
0.30582124 -0.44146249 -1.644425
0.31200999 -0.44072002 -1.64325
0.32630333 -0.44122669 -1.6420335
0.33433715 -0.44225574 -1.6421144
0.3429575 -0.44145501 -1.6413
0.35557401 -0.44169503 -1.6437298
0.36444402 -0.44106403 -1.6438999
0.37503201 -0.44264397 -1.6421301
0.38513499 -0.44281995 -1.6423001
0.39340502 -0.44154251 -1.641625
0.40443501 -0.44139335 -1.6426333
0.41714603 -0.44177002 -1.6440198
0.42520002 -0.44133499 -1.6424251
0.43460247 -0.44138253 -1.6410251
0.4453789 -0.44124776 -1.6434667
0.45580634 -0.44266185 -1.6431453
0.46426287 -0.44303712 -1.6431215
0.47474858 -0.44082573 -1.6441144
0.48551333 -0.44163334 -1.6428
0.49550888 -0.44168445 -1.6437001
0.5019275 -0.4412775 -1.6422
0.58938003 -0.44075 -1.6403
0.59596252 -0.44332498 -1.6416249
0.60410625 -0.44275123 -1.6426874
0.61445427 -0.44081858 -1.6431715
0.6249575 -0.44188872 -1.6436126
0.63560176 -0.44220006 -1.6438183
0.64436996 -0.44234601 -1.6428999
0.65439284 -0.44132286 -1.6432428
0.6665433 -0.44136 -1.6424999
0.67550498 -0.44073999 -1.6402
0.68520498 -0.44085002 -1.6427168
0.69616604 -0.440622 -1.64354
0.71451503 -0.44257003 -1.6418101
0.72511721 -0.44268289 -1.6418999
0.73549229 -0.44169003 -1.6429667
0.74488604 -0.44199401 -1.6447799
0.75558627 -0.442085 -1.645975
0.76498246 -0.44170874 -1.6445749
0.77537751 -0.44178122 -1.643175
0.78387362 -0.44256908 -1.6422454
0.79316497 -0.44106501 -1.6414499
0.80194998 -0.44095001 -1.641
-0.8347975 -0.43116501 -1.643625
-0.82591468 -0.43229464 -1.644877
-0.81521088 -0.43200999 -1.6450635
-0.8039189 -0.43252 -1.6443999
-0.7948364 -0.43228003 -1.645491
-0.78493822 -0.43220815 -1.6451908
-0.77538478 -0.43303668 -1.6445669
-0.76517814 -0.43190816 -1.6458726
-0.75587404 -0.43308797 -1.6456699
-0.74620092 -0.43301633 -1.6440636
-0.73462838 -0.43202749 -1.6447085
-0.72500157 -0.43288615 -1.6451077
-0.71491838 -0.43274084 -1.6446501
-0.70408005 -0.43276572 -1.6435572
-0.69502586 -0.43258414 -1.6445751
-0.68478423 -0.43204498 -1.643675
-0.67414385 -0.43224767 -1.6436923
-0.66488004 -0.43190226 -1.6464443
-0.65472287 -0.43291998 -1.6441499
-0.64502496 -0.43220502 -1.64475
-0.63436705 -0.43213996 -1.64405
-0.62509781 -0.43298644 -1.6434716
-0.61477 -0.43206248 -1.6448584
-0.60443127 -0.43292001 -1.6441
-0.59509695 -0.43273157 -1.6444999
-0.58537549 -0.43232 -1.6462182
-0.57399279 -0.43269271 -1.6452457
-0.5658226 -0.433256 -1.6445001
-0.554102 -0.43275067 -1.6443601
-0.54471499 -0.43349439 -1.6436278
-0.53435999 -0.43271455 -1.6447091
-0.52558875 -0.4327594 -1.6450115
-0.51521927 -0.43311769 -1.6449463
-0.50481576 -0.43265715 -1.6460215
-0.49606621 -0.43414542 -1.6432077
-0.48437774 -0.43287233 -1.643977
-0.47504431 -0.43407717 -1.6447999
-0.46485388 -0.43336055 -1.6438389
-0.4554131 -0.43270564 -1.6445312
-0.44492075 -0.43206385 -1.6445
-0.43547139 -0.43270355 -1.6447784
-0.42442355 -0.43274572 -1.6453857
-0.41521123 -0.43346125 -1.6444937
-0.40547866 -0.43374068 -1.64544
-0.39461002 -0.43323115 -1.6440706
-0.38488492 -0.43399447 -1.6440802
-0.37504274 -0.43390998 -1.6450181
-0.36498573 -0.43332431 -1.6452427
-0.3550747 -0.43393585 -1.6443764
-0.34565949 -0.4332042 -1.6454474
-0.33461109 -0.43314111 -1.6445279
-0.32511571 -0.43460926 -1.6448786
-0.3149142 -0.4339979 -1.6453104
-0.30474222 -0.43432221 -1.6445667
-0.29541546 -0.43378451 -1.6451138
-0.28485626 -0.43410373 -1.6448625
-0.27578473 -0.43531317 -1.6439737
-0.26538569 -0.4336305 -1.6450809
-0.25461113 -0.43357053 -1.6461501
-0.24449937 -0.43470937 -1.6454686
-0.23465668 -0.43415114 -1.6446613
-0.22467667 -0.43483335 -1.6453669
-0.21588778 -0.43435392 -1.64395
-0.20530201 -0.4341113 -1.6442335
-0.19499645 -0.43478426 -1.6455215
-0.18564557 -0.43476331 -1.6458777
-0.17471999 -0.43383059 -1.6460278
-0.16531308 -0.43533695 -1.6441386
-0.155136 -0.43477198 -1.6449733
-0.14405556 -0.43456554 -1.644011
-0.13516721 -0.43426391 -1.6454278
-0.12526214 -0.43578932 -1.6460428
-0.11449354 -0.43592411 -1.6441
-0.10498583 -0.43587419 -1.6443499
-0.095491998 -0.43475324 -1.6458619
-0.084347226 -0.43501166 -1.6449666
-0.075430125 -0.43492442 -1.6458751
-0.066354997 -0.43553063 -1.6460532
-0.054429792 -0.43604296 -1.6451849
-0.045745999 -0.43615332 -1.6453918
-0.034907125 -0.43502185 -1.6454251
-0.024786938 -0.43483114 -1.6450766
-0.014962312 -0.43695748 -1.644806
-0.0050458349 -0.4359735 -1.6446648
0.0044210246 -0.43610939 -1.6443822
0.015074364 -0.43638179 -1.6459091
0.024539942 -0.43642175 -1.644406
0.035223372 -0.43612632 -1.6449423
0.04509275 -0.4364931 -1.6451186
0.053987749 -0.43631497 -1.6452
0.065212667 -0.43694499 -1.644828
0.075589083 -0.43683168 -1.6446166
0.085265853 -0.436526 -1.6453301
0.095518462 -0.43538305 -1.6468847
0.10480999 -0.43617752 -1.6466084
0.11543136 -0.43667859 -1.6463864
0.12505458 -0.43695769 -1.6456233
0.13479652 -0.43696553 -1.6456699
0.14476231 -0.43762308 -1.6440384
0.15491 -0.43756232 -1.6458385
0.16577867 -0.43672931 -1.6456666
0.17493625 -0.43670624 -1.6455188
0.18467858 -0.43733215 -1.6451358
0.19463 -0.43815404 -1.6447901
0.20368417 -0.4380317 -1.6452168
0.21522249 -0.43801585 -1.6451501
0.22519924 -0.43701226 -1.645323
0.23496066 -0.43685865 -1.6452734
0.24402332 -0.43723735 -1.6449068
0.25452501 -0.43764746 -1.6448833
0.26510155 -0.43794692 -1.6467844
0.27529731 -0.43738738 -1.6454734
0.28466073 -0.43721715 -1.6466142
0.29496998 -0.43781415 -1.645525
0.30387497 -0.43775749 -1.6478125
0.31466216 -0.4375293 -1.6463572
0.32478398 -0.438559 -1.6436199
0.3355293 -0.43719468 -1.6469867
0.34429771 -0.4374423 -1.6454154
0.35374334 -0.43819666 -1.6465888
0.36470333 -0.43848002 -1.6468834
0.37527749 -0.43928251 -1.6451625
0.38458642 -0.43771002 -1.6455929
0.394243 -0.43815604 -1.6447899
0.40502888 -0.43864447 -1.6452999
0.41454723 -0.43798274 -1.6458272
0.42587501 -0.43790898 -1.64587
0.43416101 -0.43847394 -1.6459801
0.44626334 -0.43816337 -1.6479334
0.45562574 -0.43833858 -1.6479714
0.46579286 -0.43783 -1.6470143
0.475216 -0.43845001 -1.6485599
0.48466605 -0.43790597 -1.6465101
0.49412501 -0.43788505 -1.6480333
0.50446999 -0.43716538 -1.6464078
0.51248997 -0.43436 -1.6492
0.59660709 -0.43591002 -1.6464714
0.60493571 -0.43806288 -1.6478856
0.61512166 -0.43833831 -1.6474833
0.62569112 -0.43582222 -1.6471777
0.63507861 -0.43485537 -1.6456867
0.64411628 -0.43702251 -1.6450375
0.65586919 -0.43721423 -1.646575
0.66538662 -0.43898833 -1.6454334
0.6746856 -0.43885335 -1.6460667
0.68518662 -0.43818 -1.6469001
0.69471163 -0.43782333 -1.64665
0.70402002 -0.43799502 -1.64551
0.71406442 -0.43820444 -1.6466111
0.72363394 -0.43860397 -1.64378
0.73380244 -0.43727127 -1.6476624
0.74477673 -0.43770668 -1.6483999
0.75576001 -0.43855 -1.6475999
0.76526564 -0.43758431 -1.6470429
0.77647185 -0.43682271 -1.6475636
0.78564876 -0.43768251 -1.6458375
0.79251289 -0.43788713 -1.6443571
-0.8422581 -0.42684802 -1.6457599
-0.83584005 -0.42866001 -1.64728
-0.81536496 -0.42907 -1.64885
-0.80399001 -0.42925802 -1.6468999
-0.79706502 -0.42895001 -1.6484001
-0.77455497 -0.42910999 -1.6489999
-0.76362997 -0.42932999 -1.6499
-0.75388998 -0.42928001 -1.6497
-0.74495745 -0.429535 -1.6473
-0.73563755 -0.42927501 -1.648
-0.72466332 -0.42894664 -1.6483999
-0.71859002 -0.42910999 -1.649
-0.70609999 -0.42917335 -1.6492667
-0.69647664 -0.42903003 -1.6487001
-0.68119001 -0.42923 -1.6495
-0.67504001 -0.42927 -1.6496
-0.64251995 -0.42913499 -1.6491001
-0.63431501 -0.42913002 -1.6474
-0.625265 -0.42958498 -1.6475
-0.61236 -0.42932498 -1.6498499
-0.60465997 -0.4292067 -1.6493999
-0.59556001 -0.42915002 -1.6492
-0.58476001 -0.42930666 -1.6497332
-0.57147002 -0.42901999 -1.6487
-0.56544667 -0.42895332 -1.6483999
-0.55450404 -0.42904601 -1.64744
-0.54495668 -0.42915332 -1.6491666
-0.52399331 -0.42880332 -1.6478
-0.51691997 -0.42902499 -1.6486501
-0.50265002 -0.42931998 -1.64985
-0.48517999 -0.42927501 -1.64965
-0.44924 -0.42934 -1.6499
-0.43496001 -0.42936 -1.65
-0.42028999 -0.42886001 -1.6481
-0.41756999 -0.42899999 -1.6486
-0.39498001 -0.42910001 -1.649
-0.3888 -0.43000001 -1.6457
-0.37681001 -0.42930499 -1.64975
-0.34452999 -0.42927 -1.6496
-0.31795502 -0.42913002 -1.6491001
-0.29575002 -0.42912 -1.64905
-0.18156999 -0.42882001 -1.6479
-0.1789 -0.42910999 -1.649
0.618025 -0.42072499 -1.64745
0.62532121 -0.42542315 -1.6460062
0.632388 -0.42687002 -1.64186
0.61664909 -0.41489908 -1.6468638
0.62213206 -0.41558599 -1.64252
0.6137253 -0.40523356 -1.6440822
0.60720497 -0.39216 -1.6449001
0.61465728 -0.39463317 -1.6447091
0.60958999 -0.38519999 -1.6483001
0.61663139 -0.38850001 -1.6454571
0.62555277 -0.38422805 -1.6445999
0.63444144 -0.38096714 -1.6440144
0.64112002 -0.382085 -1.64235
0.63739753 -0.37896502 -1.645775
0.64300501 -0.3776775 -1.643875
0.72534001 -0.37132999 -1.6408
0.73519331 -0.36537442 -1.6433001
0.74453747 -0.36398125 -1.64755
0.75165999 -0.363745 -1.6494
0.67622995 -0.35707664 -1.6412001
0.68519753 -0.3537325 -1.6429999
0.69403833 -0.35500336 -1.6434666
0.70447499 -0.35133499 -1.648025
0.72975999 -0.35225999 -1.6402
0.73721439 -0.35591716 -1.6423142
0.74502701 -0.355129 -1.6454699
0.75444001 -0.352328 -1.6486
0.68922001 -0.34917 -1.6418999
0.69536799 -0.348396 -1.6461599
0.70289749 -0.34814748 -1.649
0.72644496 -0.34648001 -1.645
0.73529106 -0.34515899 -1.6437
0.74510598 -0.34547168 -1.6444113
0.75410336 -0.34333333 -1.6464001
0.74757004 -0.339975 -1.6468999
0.88484669 -0.15139334 -1.6413666
0.88385868 -0.14464626 -1.6426125
0.87849998 -0.13121 -1.6447999
0.88191998 -0.13361999 -1.6427
0.88342172 -0.12674166 -1.64315
0.87949002 -0.11637 -1.6417
0.881625 -0.11392 -1.6422999
0.87949002 0.10732 -1.6423
0.883205 0.10839 -1.642225
0.81540871 0.11614125 -1.6424124
0.82500803 0.11504301 -1.64273
0.83356601 0.115388 -1.64484
0.84544712 0.11706858 -1.6445571
0.85305005 0.114556 -1.6433401
0.86697 0.11217666 -1.6437334
0.87541568 0.11218143 -1.6430999
0.88145995 0.11157999 -1.6431333
0.76933002 0.12884 -1.6437
0.77666831 0.12777834 -1.6443834
0.78406 0.12524 -1.64518
0.79239625 0.12363125 -1.6444249
0.803415 0.12388 -1.645
0.81216753 0.1226925 -1.64625
0.82339174 0.12181833 -1.6475
0.83496332 0.12067 -1.6467
0.845155 0.12079 -1.64845
0.85360664 0.12070667 -1.6472667
0.75804502 0.13521749 -1.647925
0.76596451 0.13293889 -1.6463445
0.77643663 0.13224834 -1.6466832
0.78173 0.13068999 -1.6468
0.84217501 0.29620498 -1.6453
0.81801003 0.30840001 -1.6464666
0.82767498 0.30628499 -1.6468
0.83512747 0.3052825 -1.6449125
0.8451243 0.30629143 -1.6444145
0.85042 0.30166 -1.64275
0.81347245 0.31806251 -1.64665
0.82665998 0.31433377 -1.6466374
0.83601999 0.31405002 -1.6462749
0.84375 0.3168 -1.6433375
0.80941999 0.32431999 -1.6494
0.81406456 0.32551616 -1.6451541
0.82456994 0.32473335 -1.6448556
0.83517259 0.32377002 -1.6447831
0.84464997 0.32493201 -1.6421601
0.81410152 0.33660695 -1.6449077
0.82606417 0.33613002 -1.644925
0.8339029 0.33455998 -1.6442927
0.84282398 0.33547997 -1.64188
0.80621499 0.341685 -1.6466
0.81606901 0.34618601 -1.64578
0.82387257 0.34341624 -1.6446
0.83494329 0.34430334 -1.6412333
0.80744994 0.35475999 -1.64755
0.81536609 0.35442385 -1.6447845
0.82406336 0.35452917 -1.6438748
0.83372593 0.35301599 -1.6427
0.80992001 0.3655 -1.6416
0.81648624 0.36499619 -1.64565
0.825041 0.36495799 -1.6414801
0.83142 0.36620501 -1.6408501
-0.51924002 0.37959 -1.642
-0.49492332 0.37933335 -1.6409334
-0.48456001 0.37946332 -1.6415
-0.47852999 0.37918001 -1.6403
-0.44440001 0.37915 -1.6402
-0.43031001 0.37915999 -1.6402
-0.42492667 0.37942001 -1.6413332
-0.415095 0.37941998 -1.6413
-0.39555749 0.3794975 -1.64165
-0.384415 0.37951502 -1.6417251
-0.37740999 0.37946001 -1.6415
-0.353755 0.37936002 -1.64105
-0.34677997 0.37927666 -1.6407
-0.33301499 0.37931001 -1.6408
-0.32747999 0.37926999 -1.6407
-0.31387666 0.37948334 -1.6415666
-0.30557665 0.37936333 -1.6411
-0.28245503 0.37961501 -1.6421499
-0.27419749 0.37949252 -1.6416249
-0.26455334 0.37928334 -1.6407
-0.25551334 0.3793433 -1.6409999
-0.12396333 0.37932333 -1.6409
-0.114555 0.37955999 -1.641925
-0.1051275 0.37909502 -1.64185
-0.095699996 0.37958002 -1.642
-0.088968001 0.37952 -1.6418
-0.071447998 0.37970501 -1.64255
-0.064195596 0.37876996 -1.6416
-0.056117199 0.37906399 -1.64132
-0.044105332 0.37924334 -1.6406001
-0.035057001 0.37961999 -1.6421667
-0.026961999 0.37961665 -1.6422
-0.015256667 0.37963668 -1.6422666
-0.0053396667 0.37966332 -1.6423668
0.0041478947 0.37973502 -1.6427
0.014009501 0.37896335 -1.6419168
0.0283655 0.37928 -1.6407
0.033874497 0.37951499 -1.64175
0.046156336 0.37968335 -1.6424665
0.05560175 0.37952003 -1.6417251
0.063834496 0.37967002 -1.6424
0.074799247 0.37980002 -1.642975
0.082912505 0.37965 -1.6423
0.097719997 0.37755001 -1.6409
0.10336 0.3786875 -1.642
0.11449 0.37980667 -1.6430334
0.122545 0.37867001 -1.64195
0.13642667 0.37970331 -1.6425333
0.14461 0.37956667 -1.6419998
0.15435499 0.37967998 -1.6424
0.16428 0.37999001 -1.6438
0.17505999 0.37957001 -1.6419667
0.18483999 0.37963247 -1.6422499
0.19157 0.37935001 -1.641
0.205495 0.37847501 -1.6410999
0.21156999 0.37986001 -1.6432
0.224944 0.37940997 -1.64282
0.23523501 0.37961 -1.6421499
0.24379501 0.379715 -1.64255
0.25814998 0.37990999 -1.6434
0.26488999 0.37955332 -1.6419333
0.27173501 0.37930501 -1.6408501
0.28483668 0.37955666 -1.6419001
0.29201502 0.37957501 -1.642
0.33430001 0.37996 -1.6437
0.344145 0.37968498 -1.6425
0.35455 0.37983 -1.6431
0.36589003 0.37954 -1.6418
0.40448666 0.37965667 -1.6423334
0.41329667 0.37955999 -1.6419334
0.81673998 0.37481126 -1.6427001
0.82335007 0.37343603 -1.6417201
-0.76218998 0.38388002 -1.64605
-0.75619 0.38368499 -1.6470501
-0.7475 0.38454998 -1.64895
-0.723598 0.38209599 -1.64276
-0.71465778 0.38377333 -1.6464
-0.70697999 0.38507 -1.6487333
-0.67354602 0.38261801 -1.6450001
-0.667795 0.38282502 -1.6451499
-0.64387006 0.38335666 -1.645
-0.63562167 0.38271165 -1.6446834
-0.62601715 0.38304001 -1.6455858
-0.61529857 0.38254145 -1.6444713
-0.60542828 0.38263667 -1.6443501
-0.5951888 0.38278502 -1.6449999
-0.58494163 0.38290334 -1.6454835
-0.57536572 0.38313428 -1.6459714
-0.56501567 0.38274142 -1.6453286
-0.55725002 0.38254333 -1.6451668
-0.53298396 0.38338399 -1.6468399
-0.52411836 0.38253498 -1.6451167
-0.51396251 0.38260001 -1.6459999
-0.50586671 0.38302502 -1.6472334
-0.49449995 0.38302836 -1.6460334
-0.484795 0.38292167 -1.6455668
-0.47482997 0.38255572 -1.6445429
-0.46660998 0.38269499 -1.646425
-0.45499748 0.38140252 -1.6426749
-0.44459 0.383145 -1.6465501
-0.43627802 0.38257399 -1.64626
-0.42542857 0.38331288 -1.6467572
-0.41575143 0.38308001 -1.6467856
-0.40499875 0.383075 -1.64625
-0.39550331 0.38345835 -1.6478833
-0.38510251 0.3819325 -1.64495
-0.37403336 0.38317168 -1.6478666
-0.36442003 0.38301834 -1.6459999
-0.35460165 0.38262999 -1.6455334
-0.3451983 0.38332164 -1.6473166
-0.33529714 0.38319713 -1.6472857
-0.32455125 0.383495 -1.6480373
-0.31407249 0.38289249 -1.647275
-0.30403832 0.382745 -1.64605
-0.296105 0.38275498 -1.646675
-0.28471202 0.38216397 -1.6445
-0.27485251 0.38236502 -1.6468501
-0.26379502 0.38253498 -1.645725
-0.25516286 0.38314 -1.6470429
-0.24631 0.38272667 -1.6483999
-0.1240975 0.38303751 -1.6479
-0.11434801 0.38267201 -1.6466999
-0.10515333 0.38231 -1.6465667
-0.095695004 0.38252503 -1.647475
-0.083540343 0.38222668 -1.6461998
-0.074087001 0.38214251 -1.6458499
-0.063910998 0.38301501 -1.6477751
-0.055960197 0.38266402 -1.6466398
-0.044322751 0.38237751 -1.64685
-0.034871999 0.38225666 -1.6463666
-0.025911001 0.38141999 -1.6451
-0.013171666 0.38240668 -1.6469666
-0.0043566502 0.38280249 -1.646875
0.0037120362 0.38295001 -1.64788
0.014107667 0.38284668 -1.6488667
0.025498001 0.38194001 -1.64675
0.0350255 0.38275623 -1.6466625
0.04385617 0.38230336 -1.6465498
0.054856669 0.38252333 -1.6474667
0.064455003 0.38260666 -1.6478333
0.075408496 0.38262248 -1.647925
0.085036665 0.38269666 -1.6482334
0.095380999 0.381845 -1.6469666
0.10530833 0.38159832 -1.6458999
0.11503 0.38229001 -1.6464666
0.12659201 0.381318 -1.6466401
0.133635 0.38187748 -1.646525
0.14430249 0.38270998 -1.6483001
0.15457401 0.382404 -1.6484001
0.16510999 0.38189501 -1.6484001
0.17386802 0.38217202 -1.6474199
0.18450999 0.38253331 -1.6475667
0.2081525 0.38154998 -1.6468999
0.21586999 0.38185802 -1.6475201
0.2249625 0.3822675 -1.6464
0.23470999 0.38213 -1.6458
0.24560499 0.382025 -1.6471751
0.25466251 0.38145998 -1.6465249
0.26473501 0.38236749 -1.64685
0.27616999 0.38147801 -1.64586
0.28506249 0.38266 -1.6480999
0.29519665 0.38272667 -1.6483666
0.30522501 0.38267249 -1.6481251
0.31539333 0.38270998 -1.6483001
0.32484666 0.38199663 -1.6476334
0.33611751 0.38202751 -1.6471751
0.34467599 0.38175201 -1.64704
0.35393199 0.381984 -1.6466202
0.36462498 0.38279 -1.6468251
0.374955 0.38239253 -1.646925
0.38558999 0.38259664 -1.6478
0.39521 0.3831 -1.65
0.40521997 0.3827925 -1.6486501
0.41483998 0.38259751 -1.646
0.82232398 0.38633999 -1.6419799
0.82411999 0.39278001 -1.641
0.37360001 -0.45023 -1.6301
0.59982002 -0.45063001 -1.6316
0.67532003 -0.45023999 -1.6302
0.74466002 -0.45052999 -1.6313
0.81576002 -0.45120001 -1.63045
-0.80243999 -0.44095001 -1.63135
-0.79974002 -0.44042999 -1.6328
-0.77363998 -0.44365001 -1.6315
-0.76024997 -0.44082499 -1.6309
-0.755225 -0.44075251 -1.632275
-0.74475402 -0.44092196 -1.6319001
-0.73434401 -0.44074997 -1.6312802
-0.72380501 -0.44166499 -1.6307
-0.71341664 -0.44204998 -1.6321001
-0.70691001 -0.44020498 -1.63195
-0.69103998 -0.440835 -1.63095
-0.68515331 -0.44038334 -1.6346668
-0.67970002 -0.44069999 -1.6338
-0.6541 -0.44080502 -1.6308
-0.64526999 -0.44018999 -1.6318666
-0.62984002 -0.44081998 -1.6309
-0.61759001 -0.44150001 -1.6301
-0.60464752 -0.440265 -1.6321499
-0.58344001 -0.44165999 -1.63065
-0.57716805 -0.44111198 -1.6326001
-0.55303001 -0.44049001 -1.6329501
-0.54218668 -0.4409667 -1.6325001
-0.53406334 -0.44066668 -1.6314
-0.52820998 -0.44064 -1.6313334
-0.514 -0.44149336 -1.6322333
-0.50560838 -0.44075334 -1.6317334
-0.49445498 -0.44051749 -1.631425
-0.485118 -0.44088998 -1.63316
-0.4730975 -0.4411225 -1.6319751
-0.46486402 -0.44201201 -1.6319602
-0.45449501 -0.44106001 -1.6317999
-0.44274196 -0.44110799 -1.6326201
-0.43459499 -0.44018501 -1.6319001
-0.428765 -0.44081998 -1.6309
-0.41433001 -0.440938 -1.6319799
-0.40631667 -0.44064331 -1.6313334
-0.39621332 -0.44145 -1.6321335
-0.38471574 -0.44092003 -1.6335572
-0.37412199 -0.440806 -1.6328001
-0.36634001 -0.44117999 -1.63288
-0.35448402 -0.44057998 -1.632
-0.34456 -0.442002 -1.63202
-0.33499196 -0.441892 -1.6328599
-0.32457 -0.4418627 -1.6326091
-0.31523183 -0.44176003 -1.6322181
-0.30560142 -0.44095141 -1.6318572
-0.29165 -0.44102499 -1.6349499
-0.28485 -0.44038752 -1.6357501
-0.27516308 -0.44168389 -1.6337306
-0.26563373 -0.44180626 -1.6320375
-0.25563571 -0.44086856 -1.6333715
-0.24556999 -0.44222248 -1.6327499
-0.23547168 -0.44177666 -1.6344
-0.22627401 -0.44165206 -1.6319901
-0.21494626 -0.44148752 -1.6333499
-0.20418638 -0.44229814 -1.6330727
-0.19509001 -0.44243497 -1.6329
-0.18509069 -0.44201285 -1.6338427
-0.174973 -0.44190401 -1.6322601
-0.16428666 -0.44188997 -1.6337166
-0.15481165 -0.44211245 -1.6339833
-0.14450935 -0.44225332 -1.6337534
-0.13554555 -0.44268888 -1.6338
-0.12509364 -0.44229546 -1.6336273
-0.113975 -0.44168749 -1.6351248
-0.10516 -0.44216782 -1.6325445
-0.095420472 -0.44235799 -1.6358534
-0.083873503 -0.44223875 -1.6320251
-0.075105883 -0.44248331 -1.6330221
-0.066035613 -0.44223925 -1.6333307
-0.055436905 -0.4421255 -1.6347545
-0.043763436 -0.44248313 -1.6333561
-0.035136286 -0.44214574 -1.6343714
-0.024839999 -0.44232145 -1.6349572
-0.014434563 -0.44288188 -1.6335938
-0.0046251398 -0.44229698 -1.63432
0.0044688019 -0.44231373 -1.6347249
0.015135277 -0.44287059 -1.6333833
0.025219308 -0.44207615 -1.6342076
0.034056429 -0.44216079 -1.6353214
0.045428846 -0.4421646 -1.6350538
0.054967903 -0.44285101 -1.63638
0.064715445 -0.44253278 -1.6353443
0.074797243 -0.44271079 -1.6356417
0.084365219 -0.44397661 -1.6349611
0.094090372 -0.44324777 -1.6347611
0.10531221 -0.44409612 -1.6350332
0.11478572 -0.44210288 -1.6355573
0.12524286 -0.44317764 -1.6338477
0.13426428 -0.44314283 -1.6347858
0.14518 -0.44289723 -1.6349001
0.15485498 -0.44335422 -1.6346428
0.16479167 -0.44301334 -1.6367664
0.17486051 -0.44418454 -1.635185
0.18548399 -0.44411665 -1.6354668
0.19510935 -0.44396687 -1.6355815
0.20457333 -0.44360754 -1.6346583
0.215114 -0.44436049 -1.6358401
0.22494669 -0.44509402 -1.63564
0.23508 -0.44297349 -1.6362939
0.24475476 -0.44453341 -1.6348763
0.2544044 -0.44358316 -1.6353749
0.26472849 -0.44503745 -1.634145
0.27517787 -0.44430566 -1.6349
0.28532943 -0.44515586 -1.6344764
0.29570735 -0.443214 -1.6359934
0.30568376 -0.44510067 -1.6349312
0.31537229 -0.44395092 -1.6353545
0.32503733 -0.44462869 -1.6347867
0.33525527 -0.44552824 -1.6351117
0.34559938 -0.44486314 -1.6352875
0.35499385 -0.44539309 -1.6345385
0.36432269 -0.44419929 -1.6357599
0.37523749 -0.44675919 -1.6349916
0.38480583 -0.44615749 -1.634925
0.39479169 -0.44482777 -1.6352167
0.40506402 -0.44527864 -1.6358932
0.41507882 -0.44504589 -1.6359646
0.42483398 -0.44414529 -1.6359932
0.4350425 -0.44496003 -1.6356375
0.44549948 -0.44587946 -1.6355221
0.45421901 -0.44623598 -1.63471
0.466443 -0.44535798 -1.6340201
0.47540921 -0.44430077 -1.6354768
0.48480073 -0.44592142 -1.6344429
0.49417928 -0.44514427 -1.6342928
0.50127 -0.44303 -1.6336333
0.58769 -0.444628 -1.63524
0.59533405 -0.4454273 -1.6351867
0.60586411 -0.44549266 -1.6354201
0.61446428 -0.44427428 -1.6348286
0.62530768 -0.44598767 -1.6352693
0.63576365 -0.44652092 -1.6356999
0.64532816 -0.44571638 -1.635709
0.65460002 -0.44467926 -1.6348922
0.66480583 -0.44430915 -1.6356667
0.67464995 -0.44504559 -1.6356944
0.68460858 -0.44459143 -1.6364428
0.69483495 -0.44468275 -1.6357554
0.70428497 -0.44422916 -1.6348001
0.71548873 -0.44505745 -1.6343375
0.72532547 -0.44572094 -1.6362636
0.73401701 -0.445113 -1.63445
0.74491864 -0.44557998 -1.6354927
0.7547127 -0.44567534 -1.6347932
0.76554459 -0.4454408 -1.6352308
0.77471226 -0.44612232 -1.6342924
0.78607363 -0.44605905 -1.634591
0.7952922 -0.4445433 -1.6356221
0.8048324 -0.44474077 -1.6346616
0.81246144 -0.44519427 -1.6345428
-1.0134001 -0.43737999 -1.6308
-1.0051666 -0.43640831 -1.6346666
-0.99694175 -0.43569663 -1.63425
-0.84024 -0.43123999 -1.6374
-0.83427554 -0.43377003 -1.6365888
-0.82502377 -0.43682995 -1.6352357
-0.81436783 -0.4364621 -1.6362286
-0.80477929 -0.43669599 -1.6363066
-0.79435086 -0.43670365 -1.6356636
-0.78605139 -0.43711355 -1.6363498
-0.77532274 -0.43748185 -1.6350182
-0.76473373 -0.43690363 -1.6355785
-0.75565636 -0.43676355 -1.6368929
-0.74462658 -0.43742833 -1.63585
-0.73543841 -0.43673611 -1.6371924
-0.7252118 -0.43770871 -1.6353438
-0.71512997 -0.43801212 -1.6341572
-0.70598137 -0.43664286 -1.6369213
-0.69386357 -0.43642285 -1.6361357
-0.68552995 -0.43726727 -1.6360272
-0.67549998 -0.4368763 -1.6354562
-0.66451681 -0.43674815 -1.6354189
-0.6557228 -0.4371393 -1.6364499
-0.6447227 -0.43653452 -1.6344635
-0.63494647 -0.43632236 -1.6351058
-0.62490726 -0.43726999 -1.6360091
-0.6149888 -0.43734762 -1.6362647
-0.60459363 -0.43765819 -1.6356819
-0.59409249 -0.43700001 -1.6342916
-0.58520436 -0.43713626 -1.6352313
-0.57544291 -0.43681002 -1.635806
-0.5647282 -0.43763274 -1.6362363
-0.55681854 -0.43705145 -1.6361214
-0.54516596 -0.43770599 -1.63393
-0.53493065 -0.43749875 -1.6365563
-0.52389902 -0.43736905 -1.6353
-0.51457787 -0.43707779 -1.6343715
-0.5046128 -0.43679571 -1.6351072
-0.49361551 -0.43730915 -1.6373547
-0.48474357 -0.43664142 -1.6364501
-0.47572726 -0.43782729 -1.6357455
-0.465868 -0.43812999 -1.63491
-0.45503154 -0.43740001 -1.634177
-0.44551295 -0.43730175 -1.6360941
-0.43430877 -0.43722877 -1.6363499
-0.42449075 -0.43785143 -1.6354142
-0.41416535 -0.43812388 -1.6378076
-0.40452185 -0.43818367 -1.6359363
-0.39526999 -0.4376446 -1.6365463
-0.38483602 -0.438878 -1.6370001
-0.3749207 -0.43746644 -1.6367142
-0.36522833 -0.43735835 -1.6372417
-0.35543799 -0.43768901 -1.6352202
-0.34398717 -0.43792143 -1.6360856
-0.33454669 -0.43804222 -1.6365
-0.32512403 -0.43804002 -1.6364801
-0.31537625 -0.43821624 -1.6379249
-0.30536541 -0.43760616 -1.6379306
-0.2948525 -0.43863833 -1.6355249
-0.28494126 -0.43820125 -1.637125
-0.27318999 -0.43882748 -1.63625
-0.26392201 -0.43767101 -1.6357599
-0.25523001 -0.43784666 -1.6357555
-0.24498333 -0.43844834 -1.6348333
-0.23474899 -0.43789402 -1.6365799
-0.22592665 -0.43883666 -1.6351833
-0.214596 -0.43847004 -1.63679
-0.2038175 -0.43810749 -1.6372918
-0.19511856 -0.43865141 -1.6368999
-0.18527001 -0.43845749 -1.6380001
-0.17436917 -0.43833169 -1.6375583
-0.16484001 -0.43901333 -1.6369165
-0.15591401 -0.43844503 -1.63799
-0.14393285 -0.43867996 -1.6379144
-0.13498667 -0.43889332 -1.6364666
-0.12602699 -0.43825898 -1.6359899
-0.1167125 -0.43893749 -1.63815
-0.10563167 -0.4388617 -1.6374334
-0.096505202 -0.43863201 -1.6373199
-0.085234813 -0.43882361 -1.6353453
-0.075374335 -0.43888664 -1.6364332
-0.065421782 -0.4384478 -1.6372777
-0.059068002 -0.437765 -1.6386
-0.041857835 -0.43842497 -1.63895
-0.035088144 -0.43858144 -1.6366571
-0.025484752 -0.43842128 -1.6378875
-0.013028334 -0.43946335 -1.6354666
-0.0061510252 -0.4390575 -1.6370749
0.0076305 -0.43896499 -1.6398001
0.015116833 -0.43861166 -1.6364499
0.022557 -0.43867999 -1.6388
0.032049 -0.43926501 -1.63785
0.048405498 -0.439935 -1.6372
0.055473998 -0.43898001 -1.6399
0.074577004 -0.43871999 -1.6389
0.085348003 -0.43979001 -1.6367
0.095251776 -0.43830109 -1.6381665
0.104805 -0.4378075 -1.6388
0.125525 -0.43939501 -1.6382999
0.15731999 -0.43996 -1.6373
0.20810001 -0.43893 -1.6397001
0.22341999 -0.43866 -1.6387
0.23332 -0.43865001 -1.6387
0.24731 -0.43996 -1.6373
0.58858001 -0.43871999 -1.6389
0.59423751 -0.43829247 -1.6389501
0.63714999 -0.43015999 -1.6398
0.64300001 -0.43134999 -1.6377665
0.65057999 -0.43184 -1.6396
0.70398498 -0.438835 -1.6362
0.80637997 -0.43968999 -1.6363
-0.83894002 -0.42813998 -1.6354001
0.62918001 -0.42373502 -1.6385
0.63539153 -0.42394495 -1.6355287
0.64226568 -0.42603859 -1.6334858
0.62601429 -0.41490287 -1.6374356
0.63332927 -0.41528934 -1.6324267
0.64182001 -0.41914999 -1.6312
0.65206999 -0.41768 -1.6322
0.61818624 -0.40361002 -1.6383375
0.62482244 -0.40495476 -1.6353811
0.63179398 -0.40673 -1.6326602
0.61875504 -0.39547166 -1.6382834
0.62342423 -0.3934657 -1.6334144
0.63233668 -0.39268669 -1.6327667
0.62528998 -0.38734081 -1.6353917
0.63442433 -0.38513002 -1.6348572
0.64115667 -0.38355336 -1.6338334
0.641904 -0.37715998 -1.6345799
0.70869499 -0.37351501 -1.63135
0.71596003 -0.37142333 -1.6348834
0.66907001 -0.36090001 -1.6325999
0.67639405 -0.36080003 -1.63526
0.68114001 -0.36011001 -1.6368001
0.70902663 -0.36610666 -1.6303333
0.71548998 -0.36431125 -1.6325126
0.72446752 -0.36495754 -1.6366916
0.73071003 -0.36250001 -1.6398
0.66772997 -0.35868001 -1.6303
0.67542583 -0.35443246 -1.6350166
0.68460226 -0.35715333 -1.6346444
0.69320661 -0.35571334 -1.6349334
0.70677996 -0.35142335 -1.6336333
0.71510667 -0.35507333 -1.6320555
0.72504425 -0.35508075 -1.6367499
0.73354995 -0.35377002 -1.6392
0.71607757 -0.34847751 -1.634625
0.72469878 -0.34758124 -1.63735
0.73220503 -0.34776998 -1.6393
0.88757664 -0.15202667 -1.6359
0.89300489 -0.15353143 -1.6335286
0.90056002 -0.155625 -1.63055
0.88640636 -0.14605092 -1.6374363
0.89340669 -0.1461025 -1.6338834
0.90000999 -0.14733 -1.6305
0.88538235 -0.13404647 -1.6352352
0.89155 -0.13113999 -1.6333001
0.878075 -0.120775 -1.6363499
0.8849116 -0.12534 -1.6355082
0.89051998 -0.12797499 -1.63485
0.87875003 -0.11722 -1.6359001
0.88320225 -0.11463222 -1.6328999
0.88034999 -0.1091 -1.6321
0.88332671 0.098269671 -1.6315999
0.80430806 0.108982 -1.63148
0.81471997 0.10965333 -1.6321334
0.82620507 0.10838833 -1.6324167
0.83631331 0.10707334 -1.6312833
0.84654796 0.107392 -1.63468
0.85540241 0.107365 -1.6350626
0.86457002 0.1064425 -1.6358
0.87596005 0.10386 -1.6333333
0.88158673 0.10225 -1.6325001
0.77553499 0.117945 -1.6310501
0.78327751 0.11725 -1.6324
0.7955783 0.11684916 -1.6343249
0.80429602 0.116264 -1.6345001
0.81523502 0.114295 -1.6370749
0.82568997 0.11007 -1.6382999
0.83506995 0.1139289 -1.6382445
0.84501666 0.11348334 -1.6370333
0.85541403 0.112098 -1.6368001
0.86381495 0.1127025 -1.6377751
0.73914999 0.127205 -1.6333499
0.74487627 0.12713125 -1.6328626
0.75428712 0.12564144 -1.6332713
0.76480377 0.12457251 -1.6346625
0.77230668 0.12297666 -1.6331668
0.78214002 0.121755 -1.6391499
0.79479671 0.12225667 -1.6385832
0.80164999 0.12012 -1.6393
0.74530256 0.131935 -1.63785
0.75238001 0.13155 -1.6382
0.84779 0.29679999 -1.6393
0.84937 0.30719 -1.64
0.84779 0.31312001 -1.6363
0.85042 0.3188 -1.6395
0.81621599 0.32658398 -1.6369998
0.82100999 0.32582501 -1.6379
0.83750993 0.32525334 -1.6371666
0.84324503 0.32629001 -1.63835
0.85042 0.3222 -1.63885
0.81674999 0.331635 -1.6387501
0.82075 0.33032 -1.6366
0.83477861 0.33548427 -1.6381
0.84541577 0.33550143 -1.6352857
0.85298795 0.33322796 -1.6323601
0.81893665 0.34285998 -1.6370667
0.82475746 0.34527266 -1.6365865
0.83520848 0.34513155 -1.6361463
0.84465992 0.34436002 -1.6336924
0.85548496 0.34185499 -1.631
0.81849003 0.35889 -1.6391001
0.82644588 0.35721251 -1.6359667
0.83524549 0.35523817 -1.6340001
0.84388 0.35303301 -1.6332201
0.81746 0.36675501 -1.63555
0.82623714 0.36658713 -1.6355286
0.83403361 0.36547548 -1.6358727
0.8414343 0.36534429 -1.6331999
0.85095 0.36480999 -1.6307
-0.72489333 0.37850666 -1.6373667
-0.71583337 0.37868333 -1.6381334
-0.69370747 0.3762975 -1.6336
-0.68468326 0.376845 -1.6340166
-0.67508572 0.37687287 -1.6346858
-0.66804332 0.37785664 -1.6371001
-0.65256 0.37769333 -1.6364001
-0.64503002 0.37708998 -1.635643
-0.63487571 0.37772861 -1.6373001
-0.62573999 0.37792599 -1.63794
-0.61531371 0.37610376 -1.6337876
-0.60558635 0.37621909 -1.6345454
-0.59522402 0.37746802 -1.63596
-0.58532 0.37710857 -1.6357143
-0.57484287 0.37738425 -1.6358001
-0.56490505 0.37603 -1.6344299
-0.55501556 0.37642336 -1.6343999
-0.54414284 0.37642145 -1.6338857
-0.53501141 0.37666431 -1.6337572
-0.5243367 0.37684 -1.6353222
-0.51544857 0.37586141 -1.6348571
-0.4938525 0.3769275 -1.6363
-0.48483834 0.37531671 -1.6339
-0.47420603 0.37734398 -1.63696
-0.46484333 0.37659666 -1.6351779
-0.455587 0.375938 -1.63405
-0.44522604 0.37628901 -1.6355801
-0.435103 0.37584001 -1.63442
-0.4250257 0.37496573 -1.6331856
-0.41510144 0.37620142 -1.6351858
-0.40451503 0.37622198 -1.6352701
-0.39470574 0.3753686 -1.6349286
-0.386085 0.3760525 -1.636475
-0.37422165 0.37724331 -1.6370498
-0.36461502 0.37646598 -1.63556
-0.35597503 0.37557128 -1.6344125
-0.34367856 0.37574571 -1.6343
-0.33551887 0.37596002 -1.6359111
-0.32445401 0.37554097 -1.6338999
-0.31574574 0.37614283 -1.6360285
-0.30510715 0.37459713 -1.6327429
-0.29511416 0.37612832 -1.6348833
-0.28534889 0.37605777 -1.6354444
-0.27537286 0.37491855 -1.6341428
-0.26517999 0.375195 -1.63475
-0.25470248 0.37567997 -1.6348749
-0.2461925 0.37555251 -1.6343751
-0.12346143 0.37479854 -1.6347144
-0.11490667 0.37479779 -1.6343111
-0.1057575 0.37526 -1.635025
-0.095708489 0.37504002 -1.6340625
-0.084609903 0.37629271 -1.636309
-0.074793398 0.37592098 -1.6355702
-0.065555751 0.37480751 -1.6351001
-0.054899145 0.37534571 -1.6359857
-0.044892445 0.37571442 -1.6356889
-0.034669288 0.37480858 -1.633643
-0.025292287 0.37592858 -1.6373714
-0.015064778 0.37562218 -1.6352888
-0.0044263001 0.37545127 -1.6358875
0.0049609169 0.37533167 -1.6353335
0.015293166 0.37505999 -1.6355166
0.025149126 0.37527001 -1.635075
0.035226628 0.37474 -1.634725
0.044986997 0.37565997 -1.6354165
0.054914251 0.37537751 -1.6355375
0.065213434 0.37535286 -1.6360142
0.073997997 0.37589833 -1.6364666
0.085452996 0.376185 -1.6366901
0.094426289 0.37577718 -1.6367571
0.105754 0.37526399 -1.6358601
0.11508221 0.37494001 -1.6349444
0.1252325 0.37480873 -1.6350126
0.13513167 0.37520167 -1.6348001
0.14483 0.37533873 -1.6353874
0.154745 0.37481833 -1.6344666
0.16617285 0.37486002 -1.6349715
0.17520502 0.37541997 -1.6357374
0.18561144 0.37520286 -1.6353573
0.19501285 0.37531999 -1.6347286
0.203944 0.37542599 -1.6365801
0.21398002 0.37518114 -1.6360111
0.22418666 0.37495503 -1.6350666
0.23396599 0.37653598 -1.63816
0.24502501 0.37552124 -1.6361625
0.25536999 0.37507433 -1.6348287
0.26574779 0.37492552 -1.6357332
0.27511749 0.37481999 -1.6350875
0.28552717 0.37588426 -1.6371715
0.29359248 0.37522751 -1.6349001
0.30345201 0.37456802 -1.6328399
0.31484249 0.37356749 -1.6317
0.32492 0.37358999 -1.6317999
0.33401999 0.37395 -1.6334
0.34268332 0.37394667 -1.6333666
0.35653332 0.37504169 -1.63415
0.36606336 0.37556502 -1.6350168
0.37394002 0.374506 -1.6325802
0.38187501 0.37380999 -1.6328001
0.40790498 0.37724 -1.6396
0.414334 0.37544 -1.635
0.81714499 0.37471002 -1.6363499
0.8250829 0.37506714 -1.6347215
0.83658546 0.37506369 -1.6346363
0.84828001 0.37163001 -1.6309
-0.68507338 0.38040003 -1.6383667
-0.67922002 0.38058001 -1.6391
-0.64718997 0.380595 -1.63915
0.82547551 0.38253221 -1.6346444
0.8343944 0.38646778 -1.6329668
0.84293002 0.38705999 -1.6307
0.81893498 0.395255 -1.6346
0.82581371 0.39376187 -1.6342688
0.8310234 0.39525333 -1.6313667
0.82713252 0.40744001 -1.6331999
0.83276498 0.40152001 -1.63175
0.82848001 0.41215998 -1.63115
-0.36443001 -0.45107001 -1.6204
-0.18312 -0.45096999 -1.6201
-0.14142999 -0.45131499 -1.6213
-0.072858334 -0.45103002 -1.6202666
-0.067483 -0.45100999 -1.6202
-0.021575 -0.45192999 -1.6235
-0.0122315 -0.451395 -1.6215999
-0.0049286396 -0.45081797 -1.6220402
0.0040665502 -0.45098251 -1.623275
0.016252 -0.45021001 -1.6237
